# .PCD v0.7 - Point Cloud Data file format
VERSION 0.7
FIELDS x y z
SIZE 4 4 4
TYPE F F F
COUNT 1 1 1
WIDTH 1518
HEIGHT 1
VIEWPOINT 0 0 0 1 0 0 0
POINTS 1518
DATA ascii
-1.6378459 44.629292 1.426579
50.498962 -0.45229623 0.30561125
-26.721058 66.248047 -4.1926746
18.870613 4.5310864 1.152088
-13.367036 -48.344688 1.2444139
-6.5411992 -29.552114 0.44840759
17.472141 53.676239 0.24149323
-27.638409 69.214798 -3.2807744
-2.9651303 1.4205108 2.7813151
10.508084 -6.4721727 -0.1223705
-7.1167898 27.836246 1.299251
-0.17806479 45.519032 4.2352037
-24.148664 -37.597069 15.859101
-6.2219086 -6.9606738 2.1453555
6.2393527 -14.525187 -0.027174329
-10.25466 70.668289 -0.76330829
47.493774 0.61208254 0.092791788
4.5382876 28.256813 0.43856028
47.522926 2.5834646 0.034968063
-24.155159 -35.648899 14.598656
-6.0352392 -4.2651496 2.9262466
6.4907193 -12.633639 -0.019595305
4.5070109 30.533649 0.54982871
-9.6256914 -49.639057 1.5184212
-10.079323 -49.46228 1.5077553
-23.411589 -6.5551996 0.45203906
-1.4165912 50.359333 0.20149685
-3.9123237 51.161411 0.27097726
-6.1474028 -11.423334 4.1980681
93.060867 32.077988 10.518604
24.526144 11.587498 -0.15084371
53.022583 23.369003 4.2420793
-23.344086 12.54349 -1.339159
37.576481 0.46911079 0.02355456
3.4255478 11.412038 -0.33830622
-5.8335743 28.404982 0.44159257
36.542259 -0.45655566 0.020317521
49.523468 -43.200333 1.0840145
52.884544 22.544275 4.1982474
2.4381578 10.407336 -0.34834194
-6.5981216 27.738411 0.57318026
36.550053 0.3940495 0.02027069
52.870708 23.583553 4.2263441
2.4426568 11.406378 -0.35569242
-6.2489476 28.337217 0.41480863
-23.321789 42.418301 12.896668
-21.559761 -14.449756 -1.1703324
24.424845 -2.5898457 0.014538848
-46.145893 75.974747 2.0337934
55.410103 -3.0864718 5.3857675
3.7167828 -8.5534248 0.44570041
-5.1913123 8.1651564 1.4738939
-23.451153 -16.391579 1.4016583
97.537979 -25.545868 14.085
-8.3525448 -41.406734 0.69925815
51.639732 5.7225056 1.0960287
-6.4114404 75.703201 0.43836725
19.127325 -10.876261 2.6146171
-12.432528 -37.432751 0.63332695
-1.7032657 -35.58379 0.42570987
-10.387258 -18.317425 1.2376752
-23.523838 24.501751 0.51380551
33.151386 19.212397 2.3750303
46.49749 11.582057 -0.075113446
-9.4660549 -17.557673 1.3614422
47.525055 11.571254 -0.057575509
-8.7036896 -17.718473 1.1851909
5.5994864 -15.574457 8.4750786
36.525089 7.531714 -0.096231379
-8.4163437 34.497673 -0.86714518
49.537117 -35.309399 0.94541401
-23.688179 -30.434872 13.981881
-10.500338 -38.245003 0.81127167
-23.375134 4.5890012 -0.5836314
59.712051 10.395622 2.5676589
27.380377 -16.357033 0.64078182
46.527714 53.6049 1.4769865
0.5189991 15.436474 -0.4097867
-8.4218636 -34.499928 0.78011411
-22.914379 -32.564575 21.175734
-9.098156 -40.598209 0.81996429
-6.520031 -35.595364 0.76421994
25.846649 -8.0192719 2.246521
0.5190891 -12.467721 -0.071642831
-12.709566 -4.5851908 2.3830955
-0.43825477 -13.49593 -0.030296747
24.844313 -7.4427056 1.2888304
-53.119492 76.163193 -1.1804783
4.3686476 6.4746528 -0.27871177
38.77002 -4.3968544 0.47294351
38.624378 -3.5198038 0.32313827
12.469103 21.289295 -0.81397927
-24.28072 -53.184692 2.9180508
-22.911428 18.725647 -0.45358747
-22.171459 -7.4531484 -0.83396757
1.1805393 75.6129 -0.11522414
18.543001 15.565665 -0.17746967
32.478142 0.62218994 -0.037340201
-38.904385 78.9189 1.2929337
33.490829 1.515299 0.013394418
-0.51314974 12.42421 -0.40634355
33.619102 2.4919674 0.012133053
-0.47135425 13.446392 -0.41482857
52.914066 0.50232464 1.5817728
18.737806 16.580936 0.38988644
-5.4497919 75.660721 0.43808827
52.923187 5.6487002 1.5870543
2.5974677 54.163559 -1.0281757
71.489243 75.354713 2.2991872
-23.493521 -16.458702 11.135271
-10.29211 -24.268133 0.26815474
-23.218189 18.502398 -0.60527331
18.563574 14.532101 -0.16935754
-0.45605868 50.383663 0.2473419
12.501854 -6.4780979 -0.10405493
52.851189 -42.205669 2.6567066
-5.8336182 27.865936 1.4558097
11.524785 -6.4701467 -0.11374343
-6.7154293 27.817812 1.3867618
-6.7285748 23.656984 1.2206594
32.664028 -14.838447 1.5581243
-51.529942 106.73024 2.4462287
19.375101 28.236311 0.64658022
-10.72546 13.767974 1.1572278
-6.5778766 -19.498594 1.3723279
-9.700058 10.429332 1.1593674
47.161041 -62.132477 2.7331243
-10.399849 7.3541193 1.1971014
52.866421 57.534286 -0.52456194
-1.9260386 -40.694733 0.56454366
-10.532768 -23.425287 1.177048
-23.457161 19.372538 0.50999671
-9.8466787 -26.350266 1.4353842
-22.714613 -38.598106 18.157263
1.138486 44.225521 4.0610962
-9.3907986 -46.420761 0.93126953
-0.03078771 -22.509493 1.3077132
-20.540398 -12.527794 -1.2085512
25.586203 -0.78923672 0.0056877974
-45.166668 77.438103 2.020534
48.755302 54.375473 1.6235785
24.356371 -28.791447 1.0280919
-4.3155513 10.870465 1.7163545
38.923775 -4.58006 1.1637392
12.190071 20.956974 0.90393734
-24.282547 -54.376518 15.186204
39.439297 -3.6144307 1.3808427
13.418027 21.155827 0.90757614
-23.641277 -53.416702 17.435614
-1.4061074 43.60611 1.5090473
50.628078 -1.4861505 0.6676994
52.672653 -1.1208186 0.71676314
-23.310781 -8.472024 1.3903636
52.759464 -0.48040012 0.60751855
0.37019208 75.631798 1.4822658
-23.303358 -7.4880652 1.4634387
-9.0430193 -50.606136 2.3700089
52.769726 12.553878 0.44122323
39.546005 21.328808 4.0885224
52.767223 13.552622 0.4369716
52.772991 14.552139 0.42876849
-1.4491636 15.470415 -0.39590541
30.332602 42.122021 1.0211252
52.77631 15.54683 0.41676372
-23.655897 8.3385191 1.7672802
52.777477 16.547928 0.41907239
-10.964372 -33.230301 2.4670813
-23.588165 9.5648594 1.7595118
97.421677 0.25510627 15.567728
52.793709 17.542274 0.42253867
-10.927255 -32.763351 2.2807419
-23.613056 10.542036 1.520375
34.393692 1.4317552 0.010426959
0.48168227 12.427265 -0.39368239
30.73653 1.5042801 0.0063836551
-3.5210698 12.471436 -0.47794122
-3.8986061 -7.502286 2.2626595
1.7676274 -7.8321438 5.6085997
32.478317 15.535129 -0.13058645
58.436878 -0.95581943 2.676882
-23.431002 -13.502604 1.4750252
97.218567 -22.47294 14.081231
-10.68337 68.452087 0.27755439
-11.681934 65.768593 0.36140484
-1.94912 -8.332056 0.018828001
-9.734458 7.0922127 1.4661781
53.543476 57.562981 -0.54837406
-9.3905029 17.475855 0.45158958
-22.742729 25.603455 14.335294
-23.313711 21.538616 -2.250536
53.065639 32.675179 2.3044376
-4.6449766 -8.2031364 1.5822469
-9.4649115 -19.389442 1.3963957
13.44031 54.00235 1.9224139
-10.490402 -28.81041 1.2085083
-23.648499 14.601987 0.56905955
-29.058052 8.0084944 -1.9983252
52.38443 21.581022 -0.019553779
-9.4513397 -27.750584 1.3713688
-8.6888838 -28.601164 1.3145001
-13.203257 -30.177206 0.066784203
-26.414175 -22.497671 12.080986
-8.6384296 -56.246849 1.0724504
21.084894 31.712414 1.1913224
-2.7103174 -51.903271 1.1481204
29.333231 -24.429251 6.7608371
16.519623 7.4421387 -0.19303991
-41.443073 77.312592 -1.488444
56.401386 -0.8707279 6.1599936
-25.713671 -13.868699 2.1231985
50.950783 -6.3819699 1.6512121
0.1529417 46.368862 3.1087956
-23.711729 -36.437527 15.710638
-1.9555373 -41.089077 0.55242777
-2.617547 -41.15102 0.54843086
-3.5462806 -41.111641 0.54740429
50.611412 -4.3939176 0.73735493
-1.9338758 40.822903 1.2848356
-2.2818174 40.82494 1.2598803
-11.122719 67.77713 -0.25854883
46.468052 -2.3978896 0.18094407
3.7364442 25.365273 0.20854145
-5.2028966 42.813263 1.3554145
-10.851751 69.234474 0.71839625
-11.420455 68.226715 0.61902839
-12.436974 65.598244 0.43183568
-6.4853945 25.146885 1.3777336
56.496445 75.393356 -0.39892593
-18.398726 -10.403889 -1.0819678
26.466032 -26.275408 1.016915
-2.9674704 12.522235 1.6436301
-23.601639 -26.482864 -0.49174541
8.5683727 0.24515752 1.6869588
1.675729 -20.620794 1.4913149
-10.523679 75.75341 1.2635159
-21.564568 -15.366457 -1.1668304
55.344284 -4.4690347 5.6459107
3.5986004 -9.4758358 0.12218506
35.491016 6.5601993 -0.088029735
-22.674231 76.066666 -1.3854743
-5.2243114 7.7381606 1.4357451
33.519028 -16.43375 1.4675043
-9.8575983 11.439312 1.2828929
-9.5310555 -22.479021 1.4156007
-22.993431 20.158508 0.8041091
-10.605339 -38.334721 1.3783439
39.832745 19.061714 2.4989855
52.097054 11.572872 -0.012454731
7.6905279 -10.147822 1.4377941
-4.2679095 -18.521925 2.6686056
56.524639 -1.0781165 5.112545
-25.601824 -14.231894 2.1372092
50.962826 -7.481998 1.5587269
7.5183678 -5.5016356 -0.16649775
-5.2765594 2.4371889 2.386358
3.3472662 -14.673161 1.3166965
52.930336 1.5255992 1.4030206
-23.348322 -5.4754896 2.4504249
-9.8665104 68.79747 -0.39914405
48.549156 -1.4422795 0.25576714
-3.2390649 43.361691 1.6231284
18.596628 -10.928332 3.175838
49.527683 12.545864 -0.033424329
0.05988447 42.655025 3.4590738
-23.764162 -40.619114 18.938831
52.957371 -33.864048 2.2740555
48.494053 -2.4301312 0.30939624
-3.6544795 42.754559 1.7957221
-10.738916 67.652092 -0.29560795
47.503635 -2.4204974 0.24189107
-54.250793 76.237808 -0.34719658
-0.51351941 42.784576 3.5905693
-24.12104 -40.69833 17.930309
4.4782529 25.46973 0.53430027
30.701406 -25.877079 -1.3584908
17.240261 -17.210718 1.5190389
-4.5122042 42.870277 1.4848379
-23.643295 -27.303621 0.44514871
-21.540251 -19.530275 -1.1270047
-10.427879 71.474449 1.2899067
46.47467 8.5700588 -0.070743717
11.506187 -5.4796829 -0.12013992
-6.4751358 28.435303 1.3662883
-18.615129 -11.585317 -1.1189437
26.782629 -27.76376 1.0092807
-2.9670112 11.764959 1.6924552
1.1611482 -21.529121 1.5591899
-18.649021 -14.591489 -1.1302332
-2.9201031 8.4471378 1.6689038
-19.551159 -13.47491 -1.1823128
49.12891 53.897957 1.2269981
25.5334 -29.795259 1.64657
-3.6661239 9.1754332 1.4665364
13.473459 20.932735 3.8990486
-11.48877 14.434133 1.5317023
-5.4225168 -6.5707536 -0.25414011
-23.170685 27.463017 1.5203454
52.869747 34.470139 0.76454729
47.13163 3.0288954 2.9752479
-21.527285 -17.462414 -1.1272879
23.27503 -33.076927 1.8082739
71.944595 44.892334 1.4146359
-23.329136 39.405354 12.944542
52.622982 46.457333 2.2390344
3.5946658 -11.432434 0.036046658
-5.05268 5.2717791 1.5367286
50.919445 -0.5132252 2.8828397
-18.701532 -21.344828 -1.0211366
-44.986069 75.505188 -0.7703948
13.440722 5.5554781 0.80257064
-2.9623423 1.4698412 1.8232691
-3.5612402 -15.608677 0.25675151
-12.693075 1.3353271 1.8068362
-8.100338 -31.501463 1.494457
-23.544277 -12.46717 1.4038388
97.204987 -21.479933 14.014009
-23.426277 -15.389089 1.4944826
97.465446 -24.510099 14.315965
-23.391037 20.397228 -2.1718514
-4.5264759 -9.8952827 1.862958
-9.3359213 -18.355236 1.5454271
-22.949589 24.310978 0.70982569
-9.4997969 -23.39576 1.3370327
-22.984831 19.710787 0.85267466
41.803131 -20.401678 5.7207003
-3.7023134 41.355675 -0.743083
-5.4580836 -17.369572 1.7809719
-12.203385 -38.440815 1.6924634
50.461006 11.578577 -0.032341205
19.242552 -11.508286 3.2321923
52.913219 14.53321 1.563261
-10.70387 -35.868263 4.5300241
-10.495917 -0.49907809 -0.53931028
-23.366159 7.6538281 2.3789377
-7.3715491 -25.517756 1.4835682
64.378281 -4.6951818 5.3179593
-17.046576 -17.201529 2.0443554
-8.4013491 -34.534306 1.4987293
-9.2669039 -43.701344 1.4333415
30.511204 -16.488419 2.6089065
-9.4243956 -46.447701 1.4738835
-22.924433 42.166019 -0.42595565
22.173845 -19.459078 4.1397591
-8.8408794 -50.342873 1.4700991
-8.6855869 -52.572002 1.3888259
10.378544 -9.6275635 1.5979466
-13.671876 -92.25882 1.7696817
51.98666 -45.193741 2.7384739
-6.6364198 24.603018 1.3312892
15.276406 -9.1027851 1.4338694
-8.2852106 -92.372917 1.7727113
-2.8625653 -53.611996 1.6349983
29.400311 -26.58531 7.5533395
-0.47271031 -26.738062 1.4828513
4.4012704 -10.477021 0.066726163
36.486118 5.5428405 -0.077405833
-21.521091 75.904678 -1.3951203
49.635281 -37.366158 0.94512385
-8.4309607 32.589645 -0.86137789
-4.6135621 6.657928 1.6529249
-23.42182 76.368858 2.0954554
-10.503853 68.687706 -0.49460199
47.472534 -1.4234785 0.19548297
-0.50649488 43.56979 3.4940832
-24.16947 -39.373417 16.288267
-4.7101903 43.157883 1.465995
-23.743364 -26.551888 0.5210945
-7.5785851 -49.884174 0.87542272
56.322021 -2.7104344 5.3102331
-25.059702 -15.241645 2.2089062
50.956894 -8.4226856 1.5545338
16.536541 -17.075445 1.4996942
29.761839 -25.859016 -1.0852559
35.317898 -12.512643 1.4952401
35.341087 -11.476285 1.5374573
40.551197 4.555954 0.019754585
6.4869518 15.518165 -0.29139084
49.780628 75.581909 1.5041858
25.769043 -7.7112112 1.7725658
35.228058 -10.454794 1.6922208
8.556304 21.312466 1.4213995
-23.494591 -5.4910979 -0.54896164
51.060978 -6.4964337 1.6103981
7.4400492 21.356359 1.4338231
50.734097 -5.3968377 1.642886
56.250008 0.44562885 3.4729531
-25.959249 -12.712308 2.2093451
50.720222 -4.4603453 1.580812
-1.5554559 43.410366 2.4252844
42.804325 23.49898 -0.12270878
50.749672 -1.5119443 1.6417511
0.181402 44.785648 2.567812
44.542988 24.530073 -0.20770875
52.873512 -0.52895808 1.5952078
-23.335629 -7.5057092 2.3567305
53.054317 1.5135733 1.7394066
53.018673 19.523472 2.5426917
45.490005 75.466286 0.38895196
21.565151 -7.3735905 0.060199182
-23.334545 8.4826899 -2.1871872
48.391247 -65.371994 1.9261518
-9.8035917 4.5867591 0.41313392
-22.676088 12.488049 12.611532
-5.6888676 24.392347 -0.4003014
52.947403 -34.532547 4.0381975
15.518056 21.189878 4.0360074
28.769907 13.657039 0.57240063
5.5017533 21.137138 3.979872
18.937365 13.946669 0.20227475
18.6973 17.356966 0.3073059
52.888523 6.5557432 1.584053
53.148689 10.550421 1.6400039
52.909737 11.574621 1.5664927
52.911057 13.588095 1.5492563
-10.299023 -36.011139 4.5624928
52.942852 16.587696 1.4047768
-10.715119 -33.633709 4.9766397
52.887447 20.559992 1.5290308
-10.337669 5.4297347 -0.36378342
-23.286419 13.55779 2.3318248
-10.426604 -29.230087 8.20784
20.470188 -6.384686 -0.022641312
-2.2801597 46.089336 1.5146229
40.400967 18.640999 1.4717537
-17.753466 77.316162 -2.265837
-9.1765709 -39.656441 0.63095367
-22.901512 -31.427183 20.412327
-4.2893915 -0.76656395 2.431463
8.4340248 -8.4175129 -0.015135891
49.451336 4.6077499 0.05425008
42.457024 4.4309177 0.02032765
53.114185 -46.612007 5.0468469
8.3344936 15.520948 -0.26282248
53.036163 -0.52880114 2.5060177
8.4943657 -19.678631 4.4137001
21.225649 -27.835806 0.90513647
-11.306387 5.6659522 -0.39110482
22.527819 -5.5420876 0.022000793
4.5051446 28.298597 2.2018178
48.465073 8.5194092 -0.034667034
41.559189 4.5868101 0.023453394
39.542213 4.5114202 0.021822663
38.558552 4.5141597 0.018774226
4.4735265 15.566699 -0.33973873
37.387909 4.4049354 0.01216624
-51.565575 40.141239 0.76097506
3.4793224 15.523104 -0.34860778
95.107796 -0.47194287 12.641963
50.504097 15.589518 0.025845125
18.859831 -11.844271 -1.1774002
2.5066044 15.473997 -0.36572325
35.577896 4.4090776 0.0086106407
-23.296175 9.4725056 -2.2634797
21.525661 -6.456995 0.021253159
-9.8367538 5.4178476 0.390122
-22.966412 13.729832 11.228822
53.026497 20.545109 2.54738
94.974243 -0.25551662 13.514209
49.493633 15.567806 0.025020599
1.5024315 15.42656 -0.38858631
-2.6030984 15.494197 -0.4512307
22.551744 21.303957 1.5037394
59.337841 15.540083 3.4690919
1.1160271 85.063049 2.4104652
-9.4898338 -5.5405641 -0.48330191
-22.967474 37.731236 -1.6625192
-3.5553446 15.531641 -0.49747321
21.588505 21.416931 1.5149896
-23.633099 2.3594391 2.9451365
58.761391 15.413367 3.4425111
-10.494393 -5.4698143 -0.53420401
21.214159 -24.425261 2.5011349
-23.192402 37.50528 -1.5676506
4.632328 36.518105 1.553596
-0.59210324 75.641899 1.4600593
-1.565769 46.177055 1.7247419
49.510044 -0.47806406 0.24783935
-2.3677993 44.624363 1.629084
3.3718364 26.240072 0.048703782
48.512859 -0.44683149 0.19409972
-9.9887114 69.080315 -0.45534343
16.656918 -16.830486 1.4389033
-11.208805 68.275505 -0.21851467
46.454807 -1.403177 0.14557649
-5.3985019 43.334545 1.5545487
-22.333157 -22.553112 -1.0266991
-11.544667 68.485207 1.5734828
-17.838413 -44.267307 1.8311199
45.447235 5.5502625 -0.054263741
-19.607983 -20.58259 -1.0599568
-3.7588067 2.3665264 1.5272524
-15.215289 76.038307 1.5283251
28.516958 21.286562 2.4900391
41.515709 13.521262 -0.087955602
2.5757124 41.176132 -0.67897218
-28.901672 18.623835 8.3790607
-15.740602 75.929253 1.3937262
28.586248 20.948404 2.6801865
41.509449 12.524403 -0.099684313
-19.557264 75.880592 1.4286594
24.305084 20.93008 2.5644965
37.518665 12.577514 -0.11272558
-7.494164 39.311939 -0.80019289
50.474838 -30.480858 0.90086812
-2.0925539 -7.720943 0.015813733
-11.436174 9.2717619 1.5545844
-19.506149 -12.488699 -1.1855276
26.532957 -0.78400242 0.0091764256
-44.53466 77.495277 2.1678529
49.117935 54.47374 1.6514955
25.530142 -28.688534 1.6134946
-3.9398963 10.912439 1.7716285
0.34726015 -22.303177 1.5483559
25.195885 -33.031021 1.9462051
5.427886 -11.442385 0.077776179
50.105835 -38.314236 0.97306287
-7.3321991 31.531794 -0.78249454
-3.7722056 5.3760586 1.3919954
-57.24617 76.360512 -2.005542
-12.073091 14.304451 1.7241884
-8.6157322 -18.473227 1.489949
-23.456081 26.547754 1.5323622
-10.410019 -16.801977 2.2661095
52.837948 33.437531 0.70655966
-10.190297 5.5469656 1.4793458
-23.297352 31.487831 11.369597
7.475739 -10.85877 -1.3008151
-5.1908536 -2.0649903 1.736367
20.337719 4.5500588 0.53279066
52.860092 31.536522 2.4811049
-5.3900228 -9.805933 1.8464183
-31.629951 76.189163 -0.43484983
20.360357 3.500263 0.55085647
52.857124 30.576696 2.4671271
-5.4087934 -10.463676 1.6127208
-11.408107 10.435492 0.57169342
-24.837048 18.37945 9.4452982
-6.498991 -15.731897 1.9473211
51.406017 -86.82029 2.5110044
-6.3264289 -16.500727 1.6494595
-10.285246 10.409165 0.63445622
-23.431185 18.488224 11.010763
52.909618 25.526159 2.6572275
-9.5571346 -24.285242 6.3197007
3.6909046 -32.314999 0.63902545
-9.4418373 10.421199 -0.35723248
-5.2584901 -15.602713 1.8866438
-7.1051006 -22.663118 1.3777746
0.50625443 -6.4793305 -0.16631415
-12.645426 1.5543602 2.4202828
-3.9672017 -15.974347 1.4316664
-9.3303986 -92.397758 2.5755835
40.482891 0.67242181 -0.017963933
-23.238308 40.39452 -0.49086419
21.304451 -21.453011 4.2684841
-8.2638216 -92.446091 2.5200481
41.485668 0.66231817 -0.018326165
-6.8732629 -92.467018 2.2266343
43.494606 0.63689697 -0.016745003
-0.070290908 -23.294153 1.7420162
0.80340862 -21.637472 1.4881759
-19.428991 -11.399031 -1.166309
25.532444 -27.923748 1.0725501
-3.6526918 11.596352 1.4901078
-22.232996 -26.512112 -0.85817927
9.5483131 0.23522316 1.6946529
2.1339662 -20.704769 1.4592516
34.503876 -4.436533 0.10552379
-23.285866 65.216377 -0.2661171
2.0894897 -12.049367 1.7845089
2.8117874 -13.754621 1.5635469
3.5627677 -13.64087 1.3539714
-29.020969 7.100719 7.8362651
14.502706 -12.225887 0.15224399
17.493155 53.747875 2.1938627
12.531744 -12.294463 0.10606619
11.562612 -12.251757 0.09020853
-9.811306 6.4488173 1.5283346
-9.7554646 5.5033398 1.5417293
-10.283618 6.5669284 1.4190681
87.957764 -17.694962 0.87476146
-7.0559802 -22.520092 2.3099303
-7.3596334 75.737206 1.2694094
-18.546038 -15.427001 -1.0962805
-2.9274487 7.9541988 1.4451083
10.433008 -9.5559511 2.4013851
-13.613129 -92.285332 2.5255303
36.483692 0.63300985 -0.030573322
51.816856 5.5189562 2.9942527
-6.3876371 75.653114 1.313008
-17.462204 -15.504048 -1.0373515
59.218582 -4.679615 5.7323761
37.421219 0.62929893 -0.020772304
-5.4206538 75.673637 1.3795819
52.919781 5.638742 2.6406944
-16.563841 -15.437125 -1.0094621
38.476112 0.67331856 -0.018869827
-3.9368815 -4.8315682 1.594951
41.768654 14.495116 0.021537982
28.139418 22.863874 5.4892287
30.431738 -15.701648 2.2071145
2.9258733 -4.4357185 9.29632
15.390434 -12.329082 0.15071501
-28.927219 7.1052818 8.0469065
18.447708 53.745285 2.1934512
-1.2162219 45.480885 2.3465319
-19.480387 -14.447467 -1.1520398
-3.4420049 8.481122 1.4739411
-23.355173 40.498379 12.486153
3.5557022 -10.430961 0.043701176
35.492023 5.5458636 -0.07796751
-22.442953 75.823944 -1.3785039
-5.0776868 6.9600072 1.9631798
-20.490976 -17.529814 -1.1173289
24.581211 -33.122822 1.9401305
4.4525638 -11.470748 0.06538742
-4.278995 5.4238195 1.3045545
47.693665 -45.852192 1.1670001
-23.43504 32.586224 12.011535
34.5116 -2.4167428 0.057547934
-36.331596 75.822311 2.0411615
8.6897221 -10.854486 -1.4533557
-4.269351 -2.3186154 1.5335693
40.746162 16.573399 0.02917238
27.920441 24.091751 5.5836024
29.818569 -15.617285 2.1565783
-5.4798102 -25.416428 2.4919298
10.472084 -0.563187 -0.16484997
-2.9227376 7.541564 2.5030298
51.870289 5.3133984 3.0403206
-17.291468 -15.185272 -0.74379104
-6.8171315 -92.511398 3.459249
43.486412 0.61141878 0.031619824
5.2695937 -4.7695637 1.6721303
61.690216 105.17581 9.4050303
50.520412 14.524164 0.020210952
37.763844 22.118593 5.3095188
32.443821 -15.401375 2.3451693
32.660259 -14.833397 2.3207889
-12.560389 1.4948747 -0.4780347
19.302528 28.264103 1.2195545
-7.4795065 -4.5703225 -0.38154346
13.851582 -7.1791062 12.823935
26.531713 -15.298915 0.68388212
13.242672 -6.1990051 11.781842
26.504625 -14.499763 0.65197176
36.492634 2.6270256 -0.048569512
-8.7847786 29.442747 -0.85378337
49.610851 -40.583572 0.98583448
-6.5382638 30.519402 -0.74930364
-6.039134 -4.8682599 3.3063231
6.524797 -12.605101 0.041378077
51.715252 -28.791954 4.5418701
22.585077 -2.5382614 0.0092692394
54.487076 24.29595 2.3720527
-11.464972 8.5248346 -0.57806069
86.26149 47.264534 11.888155
4.4854479 34.417858 2.3626449
35.799194 22.666586 2.1922517
48.51722 14.542331 -0.026907992
-11.384057 71.535446 3.3244324
-20.446096 -18.496614 -1.097321
-4.3038106 4.7844434 1.3064312
4.0543981 59.034576 -1.008006
-19.678923 -23.221104 -1.0283051
12.23871 3.4048896 0.66710627
52.757019 9.5447645 0.43029362
63.397537 100.92068 11.791421
-3.8625782 -0.85093534 1.6838987
8.5943394 -9.6074009 -1.0018399
53.300354 -71.432533 2.1377802
-4.3579822 -1.5038661 1.4850591
9.2893219 -9.9299002 -1.0161921
-3.8401213 -1.5035214 1.6109152
-19.549805 -25.552301 -1.013728
9.7201529 -10.845103 -1.2520747
-3.8782666 -2.2922828 1.7563487
-6.3132639 -25.234009 2.5737803
8.4120159 -9.1602621 1.5618899
52.904823 5.5313916 4.2697392
-16.468756 -15.504955 -0.96901029
-53.433796 76.234962 1.3273402
17.494158 -1.4809519 -0.09542916
-18.627146 -18.628746 -1.0363448
-2.2818604 4.112535 1.4644579
82.520813 73.506485 14.578426
-23.667423 -22.616005 2.4622016
2.7928636 -13.697649 2.2389159
3.6040945 -13.661319 2.2794318
-22.923248 28.550457 14.613826
-23.269115 24.514429 -2.2548852
53.072987 35.701088 2.277163
31.487551 -16.467257 2.6829443
32.49781 -16.506018 2.5814881
33.501507 -16.516212 2.7667365
34.541 -16.471794 2.662071
21.091257 -19.68404 2.542655
-23.147272 42.586052 -1.3712894
45.727989 11.814955 3.7883642
-23.526884 -9.4679852 -0.53174293
-23.161837 36.522346 -1.4116843
21.240372 -25.446295 2.4889736
35.282665 -14.352436 2.5780299
-9.5056705 1.47402 -0.56645119
15.540391 -4.3949666 -0.087983504
11.734163 -95.939781 2.9012475
35.303688 -12.466532 2.5680842
-9.4791117 3.4795918 -0.5955295
37.688778 1.5215883 0.017081264
3.4447021 12.409401 -0.34106046
53.034679 24.579018 4.2126799
-23.345264 13.530214 -1.4555739
-54.603565 76.369171 1.4548905
16.500334 -1.494329 -0.10512456
13.478756 24.589323 0.81701595
-23.510593 -50.453808 17.94186
39.533329 -0.1246022 1.9035921
-56.666328 76.337517 1.3172148
14.501957 -1.5109427 -0.12374252
-57.799965 76.424919 1.4689348
13.481151 -1.4968065 -0.13176067
42.52039 13.521408 -0.08114735
29.584387 21.301119 2.5085471
-2.4397755 -5.6949668 0.042404294
-0.96923113 -28.387695 0.2651031
-13.496081 14.431844 -0.88717413
39.466496 -0.42653662 0.038764559
-23.867426 -50.169968 2.8376603
-16.429346 76.057831 -1.4861702
41.511837 6.5392962 -0.068464257
-12.416788 -30.345299 0.39500901
5.72193 19.091633 1.1004837
-21.602396 -32.503105 -0.7762177
2.1960053 50.523716 -0.2659148
52.95351 1.5026481 2.7293773
-16.314381 -19.114601 -1.0013087
53.02882 18.482004 0.54797214
-1.4790634 75.614159 -0.11652873
-8.67033 -19.183771 1.1400489
41.733601 -85.793839 2.7806084
-16.551376 -15.356578 1.4450194
28.521797 -9.1340141 1.5163126
11.289072 13.661408 -2.0772564
12.180137 6.2747879 0.67889833
-45.776573 76.4711 -0.19102679
-0.4699617 -11.504589 -0.07015761
-13.680045 -3.9036143 2.3363528
47.431122 -40.144138 1.0402217
-23.352072 37.504292 12.444011
20.399183 17.295012 0.47767645
52.360256 44.516293 2.5379581
-0.5892418 4.5088172 -0.31731275
16.495897 14.500953 -0.22526866
76.410774 74.938835 16.051758
52.081516 -8.7335939 4.1808233
-16.453882 -29.592873 -0.84364647
-22.533033 69.018356 -0.80968785
35.45546 -0.48416185 0.023340482
-8.9415464 17.76059 0.32816261
13.541656 -10.959312 1.3727165
-20.840513 66.326309 -0.21349263
37.455772 -3.4077368 0.10690346
39.53035 2.5531874 0.017319426
-23.717987 -47.169079 2.8928878
-8.6515236 -54.55442 1.051564
2.8010397 -9.052269 1.959437
34.482948 6.0000629 0.0010168005
-23.565842 76.04567 -0.60158688
-18.123878 -34.146717 2.3701818
44.57893 15.665351 0.019688589
-1.4816768 3.4745886 -0.23964477
-1.4897965 -3.4645088 -0.1170783
-11.302023 12.573167 -0.59761965
-13.894251 -12.387858 0.042107686
-22.82235 41.482811 -1.5980151
-9.5324249 -1.53123 -0.50792342
40.510624 2.6144199 -0.035227876
-17.294455 75.755905 -1.5205089
40.48494 5.5461164 -0.062216878
-17.686197 77.314972 -1.4429498
40.533909 7.5183263 -0.080087744
-4.5568576 34.481651 -0.72080553
53.002647 -35.196686 0.99855977
2.1658816 50.533432 -1.0435617
-9.9540834 12.081759 1.0769724
46.386471 -86.038025 2.5620899
-11.580993 -16.734301 1.2079886
53.023743 19.467066 0.53766966
15.469826 21.165218 0.86800009
-28.846945 41.422825 4.835063
28.832428 -21.39307 1.0914078
30.546637 18.521534 0.69977033
47.483109 -3.3986943 0.28042692
-10.842746 66.133621 -0.24358134
15.510942 -19.607763 1.5395987
39.222996 7.0463953 0.020452447
-18.473652 77.167938 -0.93451989
7.6274457 -8.2355871 1.3615251
-6.103281 -6.847065 1.7441254
-13.355788 -39.178875 1.1691775
36.776165 18.547594 2.5053627
49.484539 10.554744 -0.033226579
53.100636 2.3950365 1.7018067
-17.499525 -32.533466 2.2225013
45.507946 17.725578 0.019218767
42.514626 -20.505795 0.84568733
5.5173955 -95.929214 3.316402
11.525074 6.5584288 0.74674994
-46.73595 76.167641 -0.32634857
-11.494149 10.481288 1.7919309
82.341896 75.291534 15.538368
-23.604988 -20.50465 2.6153326
-7.5305109 -33.831936 3.544014
55.511028 16.758112 1.4760129
32.420628 19.754768 2.5450809
45.519684 11.577888 -0.088411771
31.733656 20.293167 2.5830424
44.499763 12.564448 -0.087958738
24.501772 7.5777712 -0.12082011
93.103706 28.674833 11.764708
-11.742834 -29.255224 4.731329
19.51613 -6.3941197 -0.037686314
-1.4914974 -2.5683415 -0.13356172
-4.6069298 -1.7160784 0.54582042
-4.6255999 2.0768173 0.65982211
-8.4594679 75.712143 1.2084723
-19.426188 -15.469116 -1.1216614
25.123556 -31.67668 1.4844441
57.451267 -4.7432981 5.6985164
-24.394917 -55.839561 2.952997
12.193917 19.091045 -0.23945044
25.484491 -23.533545 0.62023246
53.098675 -43.407974 5.1558127
8.5255079 18.486229 -0.17605434
8.2976999 -16.392487 7.6212096
21.483498 -24.609394 0.67580163
69.876991 83.774414 13.991064
-12.094984 70.697372 2.6439753
-23.564404 -20.460245 -0.51688772
-23.307291 25.514803 -1.50184
21.041183 -36.081085 2.4132881
21.189571 -20.383295 1.4567789
-23.086834 41.493561 -2.3285584
49.486187 -29.466774 0.87125427
-8.5183382 40.133595 -0.87589884
41.457153 3.6045115 -0.04154674
23.527313 -27.547033 0.69116348
10.519087 -19.636936 4.4016953
31.531498 -13.463067 0.52686292
49.527569 0.56042588 0.17258553
-23.673168 -21.393293 0.39136338
-10.481825 -42.547913 1.6483339
9.3632345 -9.2399178 1.2455972
-14.384483 -92.212807 1.8367964
-11.285057 -32.228855 2.1075497
51.61982 17.565674 0.03000064
-9.4177656 -17.474617 2.2774539
-22.815819 25.802494 1.1566556
6.1580291 -11.8069 2.8434489
-12.829224 -34.567467 4.5795693
18.602041 -11.169805 -0.58829659
-15.8775 -91.945129 2.797888
8.4338369 -8.3811302 2.4068339
-23.684618 -35.360691 0.68423527
42.536655 -26.477505 0.94454229
29.384645 -18.524601 6.4172711
-1.8635646 -31.587881 4.8434963
-24.22477 -52.634621 18.790686
-24.111561 10.265178 6.3636618
-11.364911 2.2513893 0.1544688
-20.490391 -16.425926 -1.1280982
24.172586 -32.844048 1.5771774
56.35321 -5.2074952 5.5820203
70.280807 83.568535 14.76144
-22.652618 -20.582197 -0.97630954
76.452309 75.405144 15.743886
-16.604841 -28.565924 -0.83261174
-20.489325 76.10936 -1.4586216
37.525711 6.5559196 -0.0866687
6.8681402 -16.698778 4.8875828
-23.449677 -29.607471 -0.60309374
41.471939 4.5982285 -0.051076293
41.51416 7.5083961 -0.075199515
46.643734 3.6042531 0.023270741
-8.0167255 24.587856 0.36183012
-25.123432 65.17659 -2.2017992
19.461922 3.9125922 1.1585423
0.16888581 43.814392 3.3111494
-23.728012 -39.440166 17.141396
-10.945171 -47.014141 0.85548961
-23.453102 -4.4317279 -0.49682403
-12.20045 -40.220818 1.2020278
50.496502 9.5582657 -0.029525308
19.334812 -13.221261 3.1242509
-17.701826 -33.029369 2.3842242
45.686188 16.672489 0.019586816
41.530506 11.55576 -0.10496658
-2.8540578 -40.774441 6.0020876
23.550716 15.466949 -0.15770525
92.079315 36.722267 11.905528
41.486893 15.390123 0.022790667
28.025717 23.304495 5.5394902
12.72633 23.313482 0.87305778
-24.194437 -51.51862 16.309113
5.5829568 -13.234518 -0.016540263
52.905991 8.5429115 2.6076958
-16.719608 -12.148738 -1.0061522
28.52388 -28.609789 1.0491294
-22.725119 26.210125 -2.256072
-21.900322 30.084982 16.042524
51.16431 0.087587357 2.9197245
-17.919001 -20.208212 -1.0167387
-7.6263494 -16.335258 -0.036590476
91.836349 35.434307 11.89233
22.566761 14.42555 -0.14729966
86.025955 68.911087 10.473715
4.651969 58.193054 -1.0091317
-19.678152 -24.405491 -1.0224564
52.736111 8.5502977 0.44924542
63.910217 99.456169 10.216478
21.084677 -19.686085 1.5067958
-23.072676 42.500298 -2.2609224
34.542336 -16.371815 1.4017311
-23.365547 -20.360193 -1.0395168
-21.367552 -26.370712 -1.0289125
42.182877 -18.563406 6.2077279
-2.3773854 43.458218 -0.79340172
18.867294 5.3593645 1.1702642
-26.738129 67.432388 -3.8413553
-27.613333 68.685707 -3.479785
2.3359137 -26.156357 1.0800502
-23.35117 24.46969 11.403482
-10.27854 16.388172 0.47020787
-1.2540414 52.31847 0.48896202
24.696022 -33.123421 2.4171038
2.2213173 -25.934063 1.2835288
-23.417456 25.507761 11.474328
-10.198237 17.263855 0.30315188
-23.439407 -9.4467945 1.429544
-4.7356319 14.094034 3.0677476
8.2885838 6.3904538 0.69151628
-49.582363 76.156792 -0.4993636
52.564056 43.328365 -0.44124597
97.211945 -18.628202 13.535595
-24.5637 75.886734 0.56891489
-23.487658 24.511438 1.5423254
-10.153609 -18.409323 2.3791676
52.820915 31.558493 0.53662872
53.035336 3.654865 2.4230151
-10.124564 -17.597565 -0.052116387
-23.417255 -9.4162188 2.3257303
-36.447216 68.535461 -3.4980042
-49.495506 76.193565 0.56228673
-7.3527493 -39.327702 9.1149206
55.20612 10.617848 1.4111698
-15.483594 -17.463036 -0.94604599
53.044209 3.5223691 4.2297654
-23.375875 -7.3822188 -1.1135695
8.7119312 19.072802 0.99684572
-12.627655 2.2213683 -0.54701215
-1.4507346 -11.117956 -3.012856
-27.842072 4.5043516 22.036404
-14.649302 -3.345808 0.14193338
-22.510784 -27.6474 -0.83053923
9.5243282 -0.45809931 1.6980369
52.94949 -10.89076 7.2846923
-16.40163 -31.482861 -0.7879554
51.068718 -13.437571 3.7092922
-17.580013 -34.628208 -0.774441
-1.4437801 42.58329 -0.80946863
50.810574 -15.394843 5.2434716
-18.329582 -36.52121 -0.71628958
-10.574974 -92.458557 1.8374386
13.510181 -9.1005974 1.3202761
41.589523 2.4950271 0.022366516
-23.514156 -9.4534779 0.38973016
-17.824041 -22.273054 0.1267682
27.234209 -38.367085 5.4938817
42.477982 -3.4496958 0.16173477
46.447353 4.5578399 0.023542702
47.548862 7.3837447 0.022126492
46.840706 8.1397438 0.014393209
-8.2060423 -92.455482 3.3298521
28.695421 -17.546204 0.89217108
16.471157 21.213951 0.85418499
29.278105 -21.424191 1.5378528
-24.112249 -21.824862 2.2826788
81.821854 74.749672 14.921941
12.57387 53.731503 -0.061064076
-8.9036465 -29.368526 0.72899044
15.524398 53.729794 0.24079266
-42.495209 77.342583 0.78930807
-29.277603 69.206795 -2.9835474
-11.289361 5.4801316 1.1319218
96.067764 -6.5504708 12.783988
14.554807 -19.60564 2.3890116
51.445824 55.797401 -0.40536183
-22.787708 -41.357559 18.531916
-9.6005354 -49.480549 0.83267534
-22.088085 -6.8025951 -0.80661446
9.7080231 20.872221 1.3875215
-10.841569 66.202164 0.33445549
52.101444 55.809601 -0.38674143
15.531269 -19.596189 2.4282389
-16.741528 -14.673523 1.3506302
-8.8678436 -58.98661 1.7537088
53.041435 8.6354198 1.609464
-11.400909 -31.80249 2.1699252
51.644646 18.531681 0.025174327
86.709984 -11.592322 0.82221806
-8.3197231 -16.230715 2.8764505
-13.390411 -34.435242 4.3073835
17.44799 -11.160471 -0.60416317
42.552738 -27.408865 0.94783556
29.357903 -19.442827 6.3576789
-2.2223053 -11.045858 -3.0185323
-28.973516 4.2871976 8.6870346
-15.092396 -3.2145679 0.16418299
91.165421 106.15488 7.6230526
-1.4415458 2.5363729 -0.23187396
18.552681 4.5503483 -0.12919016
1.4200006 0.35186541 1.6280292
91.690338 37.550262 12.226219
22.566235 16.412014 -0.15890664
52.70982 -4.8688579 5.8060722
-16.489441 -25.580858 -0.86899662
-22.906437 42.442429 -2.471128
35.190945 -16.231779 1.5468431
53.225464 22.386511 0.34384495
-23.596943 -21.430162 2.5084903
82.217262 74.301155 14.906216
13.406397 53.710121 -0.083576776
28.860918 -17.467863 1.1130979
38.447895 5.5130286 0.015404607
-19.48036 75.878464 -0.41028166
44.07164 18.577217 1.8241851
12.691853 -8.5859118 -0.01520343
53.162098 11.32361 1.5672271
-9.0855789 -38.287502 11.170675
-16.878553 -15.498362 2.0618532
3.3582265 -3.4613347 -0.21084994
-9.8889389 4.6776242 2.0845854
-6.3110447 -35.439285 8.1748877
-28.588123 -22.437469 10.176162
-16.924601 -74.9692 27.116262
33.515274 18.64435 0.48732904
47.017982 -36.593292 1.0159738
-23.398472 41.569855 12.520875
20.460388 21.280466 0.64127159
-3.5684218 -1.6445773 0.71578979
15.498199 14.483298 -0.24124962
15.231307 -20.047413 4.3156557
28.343304 -28.56307 0.97852325
14.509099 14.494797 -0.25506702
27.585285 -28.488642 0.97760689
11.528615 18.60367 -0.1417648
24.563496 -24.552784 0.63797241
56.505131 2.6415451 2.6470335
91.718117 36.490517 12.061326
22.479446 15.482322 -0.16878228
86.587975 69.345016 14.238237
21.280338 -21.436756 1.6950405
-23.070484 40.419353 -2.3764126
-22.820824 44.143375 13.807498
-10.853448 8.8940144 1.3579324
47.465302 -61.434219 2.3899314
-16.394253 -27.462963 -0.85959351
28.202223 -8.7014875 -1.1581002
15.456655 -0.33340636 1.7525594
-23.27611 27.468513 11.687014
-10.261738 19.455324 0.51961422
1.5497392 -0.34329829 1.62831
-24.857431 -9.1906891 -0.11468118
52.837975 -12.730041 7.2012615
-16.644209 -33.452911 -0.73865807
41.515747 1.5611151 0.015713137
-15.893162 75.922043 -0.47274944
42.400574 5.4536781 0.020279745
61.805817 75.467285 1.235431
4.2961183 43.526711 -0.33872917
-19.749193 -39.268402 -0.69787943
47.480637 3.6298864 0.027795123
47.515068 4.6571789 0.02520342
47.563663 8.4376154 0.010410085
69.490715 75.262398 4.1035924
-23.570654 -28.421822 -0.38751322
-12.13829 70.97226 3.1382093
-23.706926 -20.516153 0.34504303
26.489939 -5.2881756 1.9797543
-13.507868 9.6230602 -0.83032668
-2.493365 100.36142 2.3246982
17.506573 -11.045194 2.6230328
-16.939058 -14.473265 2.1192317
-9.1819954 -36.709621 4.2811565
-5.8895464 -12.061144 3.4458129
25.502119 10.608051 -0.1302322
25.477537 -0.50191081 -0.043202069
-45.221317 77.564705 1.8762051
94.111015 20.381861 12.2208
-0.49936375 -3.455812 -0.17332841
31.465094 23.61149 1.7449062
-29.278915 -27.602934 9.1146727
0.43425941 4.5130453 -0.30658373
2.8887694 -8.7736616 0.010441109
-5.1194282 1.3781083 0.85181004
21.455563 14.493608 -0.16426703
85.332901 68.743507 14.340591
-34.308048 63.819527 -4.7033157
21.286333 -22.292397 1.7524121
-23.076651 39.440323 -2.2880812
-22.873066 43.793739 11.822728
50.815033 -14.393402 5.2138538
-18.554066 -35.372379 -0.7819066
-12.204431 71.398376 3.3879571
-23.696684 -19.540516 0.37011182
45.471096 -86.60939 2.6749239
-12.183214 -16.762886 1.2305652
50.339638 33.546417 -0.15700175
26.494543 -3.7181473 1.5742403
-5.8736014 -19.485327 2.7464309
52.684715 -89.927299 3.9901531
37.269341 5.2317729 0.012206214
-20.474342 75.876968 -0.40903026
4.4220777 44.413654 3.7472608
-6.4914751 -46.17588 0.70664966
-24.430052 76.060287 1.4528097
14.761539 -17.234682 0.66946799
1.1291662 -9.3910627 7.0818362
19.502642 21.257635 2.5050402
32.485661 13.515974 -0.10524462
-11.448071 11.234572 1.7412275
-11.313717 -33.259861 2.3293655
51.593742 16.559788 0.030977242
-7.8008013 -37.570415 2.8732147
42.520306 -28.729074 0.9522953
29.40394 -20.479731 6.8293228
-2.9105635 1.8616812 3.9612203
52.885178 18.567968 4.2244811
-16.365774 -2.4801133 -0.76635927
-23.378239 18.491114 2.4318326
-10.450858 10.536492 -0.49889544
-23.335733 11.481721 2.347513
-10.690031 3.5425971 -0.34053469
34.94939 -12.40306 2.960115
-22.440077 -17.542402 -1.087809
22.691631 -33.045795 1.7367533
22.025511 -21.743208 1.6825361
-22.899979 40.527256 -2.4056354
-27.558004 -4.185667 9.0047474
-14.228951 -12.118401 0.20805304
-22.900913 24.251806 14.483836
-9.7532864 16.66926 0.37776515
36.436768 4.41995 0.01399341
-21.496326 75.87957 -0.42490903
36.411697 5.4309545 0.0111153
55.431957 75.601585 1.2210152
-21.298832 76.041412 -1.4081962
36.527966 6.5580797 -0.088947095
5.7496071 -16.083055 12.808672
-22.804329 34.60656 14.804282
-9.9355335 26.693766 0.093939506
39.548843 1.4778188 0.024100047
10.341505 -1.6046537 11.911454
23.575836 -9.4355392 0.49483541
55.44389 17.145777 2.4246111
-17.326298 -14.804602 0.43215296
-32.53109 76.129745 -0.45421255
-1.7770853 49.928623 -0.76449019
19.060814 -95.087402 13.70724
64.175568 -9.2620678 2.2220774
-17.606031 -22.368965 1.4073074
45.496136 27.527126 -0.2157553
-17.194836 -14.266661 1.5158952
53.040878 14.626854 1.5887023
-8.9174633 -46.262756 2.3586431
-17.315832 -15.176944 2.2496502
-17.317644 -14.420023 2.2426069
1.4430037 -11.449082 -0.092921883
-11.035865 -3.9224322 2.7742522
10.339491 -11.10132 2.487824
13.516061 13.471729 -0.2677598
27.480358 -1.3587373 -0.025754247
-43.512939 76.81575 1.4991274
26.483503 -29.760538 0.96702033
32.456779 0.36712012 0.01048573
-22.522438 75.871933 -0.42571488
35.663483 5.5194945 0.0065307627
54.609341 75.613815 1.1902709
47.985901 -43.863472 1.041392
-23.368473 34.512836 12.442542
-10.155889 26.641289 0.128609
-18.469772 75.864319 -0.42925701
39.522324 5.5194774 0.015800444
58.611275 75.540543 1.1406263
-24.742363 -9.2408295 0.05496376
-17.448591 -20.102863 0.44190866
51.796207 46.304806 5.1530914
27.293587 -36.784706 5.3784494
-25.142853 -55.765697 18.937202
11.447529 19.093801 0.94238114
10.634444 19.101595 0.93581223
-21.654501 -7.6372147 -1.1556346
-20.600969 75.92701 -2.5975802
-17.294493 -15.091248 0.2443393
-23.573202 -27.499718 -0.5090422
-4.7595296 42.94297 0.95830423
8.5357208 -0.4464547 1.6907331
24.429094 -3.9155095 1.0502268
38.611618 6.6332817 0.015703091
1.0719454 -68.290024 10.898011
-19.448597 76.11824 -0.82113606
-35.585911 75.847687 -0.50369531
16.707359 -96.029167 12.796489
-24.099485 -31.415237 15.189114
-11.776156 -39.282902 0.54226828
-33.590721 75.884407 -0.45312956
-17.557487 -13.733261 2.3265374
2.789047 -12.262329 0.019879024
-10.743713 -4.6419692 3.4746034
-10.325089 30.26403 -0.93013173
-23.284029 38.555084 2.260144
89.02504 39.152489 13.772066
20.429182 18.740795 -0.083308145
60.174812 -10.462397 6.348752
84.296478 72.482468 15.915688
52.756176 45.971321 1.6469774
-12.181638 7.1870131 0.50522
-25.081112 15.211383 9.0002136
22.579111 -20.608797 0.54778647
9.325038 -12.51897 5.4416714
40.541424 10.584673 -0.11335944
-11.509296 1.5578924 -0.49867201
33.041901 -14.821397 2.2978454
-24.248571 -14.741409 9.3479195
-11.16167 -22.836975 0.42181629
-15.952892 75.907272 -1.5018768
42.458637 5.5194087 -0.058882575
46.52692 2.6381588 -0.040258911
24.50798 14.782253 1.1666156
-20.451929 76.1007 -2.4817629
50.713268 -25.055302 2.3837543
58.188248 4.7576656 1.9944201
-23.438313 -8.4967318 0.44127688
-23.257708 37.421577 -0.52492762
21.306028 -24.426277 4.3825073
28.531784 -9.2891359 0.48514366
93.125107 27.952415 10.247792
24.509655 6.6061645 -0.1136133
-33.498951 76.142197 -1.4406662
6.5067301 -8.1194305 1.6910501
39.162949 6.5447607 0.0049516633
-18.548357 76.089622 -0.67084914
7.6664381 -9.3152971 1.5321084
23.505751 5.5567613 -0.12369743
92.679588 26.5009 12.080546
-34.420784 75.907326 -1.4988163
-33.481609 76.112213 -0.50476491
-34.519924 75.893387 -0.53512406
-23.534569 -19.536985 2.7254896
-14.459232 -92.217827 2.6141379
9.4451962 -9.1781044 2.5052133
-16.558994 76.030785 0.50808972
-20.728012 68.987381 -3.5425994
-33.537827 76.090149 0.61062849
5.7342772 -11.722222 2.5847673
-29.183022 -22.523664 5.6858735
20.668928 -19.414165 0.77909964
-16.033701 -94.660278 42.168983
7.3916807 -11.220087 5.3857894
38.527023 11.566013 -0.11582261
-6.422812 38.501808 -0.75664544
51.546379 -31.402439 0.93064809
-0.49973303 -2.5757625 -0.18948443
31.190607 24.28994 1.7149699
-0.47894964 3.4280198 -0.29155502
-11.305481 2.5030413 -0.43782872
-22.843317 24.657362 -2.3657813
2.5683534 0.45575488 1.6382487
-21.456545 -18.431751 -1.1225425
28.498999 1.1625068 0.00424089
28.484819 3.1513057 0.00057085324
15.487913 0.36016592 1.7452655
-25.041166 -9.0956926 -0.12209559
19.363293 -25.975809 2.8290854
-17.461695 76.041504 -0.61125481
40.498196 6.5008278 0.021421725
-17.574272 77.361404 -0.92158777
40.48402 7.1394043 0.018877652
53.054462 -35.416676 1.6305926
-21.496635 75.889999 -2.4894376
-25.043921 -9.1230602 0.090728879
19.297905 -25.996899 3.305258
6.6171899 19.089134 1.1048551
32.332806 -13.323239 0.66396451
-33.532974 75.933456 0.63532501
-29.697107 76.259972 1.5349126
14.520978 21.226954 2.4936485
27.49444 13.557281 -0.13970056
53.033051 3.675369 1.4772297
10.506822 21.226362 2.4784923
92.060669 34.322441 11.542908
23.487867 13.558165 -0.15082726
2.4686282 -11.469737 -0.022825012
-10.782033 -3.8210807 2.6071844
-23.22419 39.482323 1.6243232
52.865818 46.370747 0.78268766
9.8943567 -11.165122 2.6664937
29.371136 -22.416162 6.8550601
51.80851 40.488144 -0.37378129
96.920975 -21.354425 14.02798
51.112122 -5.8360147 0.69549602
-4.3887463 -42.384876 10.004921
-11.102837 12.043552 2.0072441
1.4515842 4.5905142 -0.29790226
-0.47799841 2.4821134 -0.27577186
10.570176 17.536739 -0.25818306
53.074043 2.3937361 2.5999806
-15.804324 -18.26627 -1.0046258
-23.239437 23.469162 -1.4804307
8.5537691 4.5396314 1.1481051
-36.574905 66.635918 -3.9294443
2.4958162 -0.35907122 1.6399976
35.526352 1.6162043 -0.049107406
-24.442348 -15.176555 7.7969251
-11.348445 -23.400749 0.58993673
29.527075 -9.3717937 0.42926431
25.406889 -11.41526 1.033412
-12.361925 72.098564 3.1217606
-23.681034 -18.453135 0.27570814
-7.4034824 27.736509 0.37848559
-9.7132206 17.603086 1.2209034
-34.490257 76.115585 -0.4987877
41.88343 -12.453888 5.1249928
-3.3449349 49.945923 -0.81759977
17.463476 -95.38485 12.77963
-8.2707253 -44.740623 0.76141369
-8.0363188 24.346058 1.443831
-21.385277 68.749596 -3.6644845
-34.532581 76.098572 0.54137194
45.793133 -88.586967 2.2137156
-12.075558 -18.031385 1.5249866
50.519005 31.298975 -0.13675854
58.704472 -4.6215129 5.853745
-23.556374 -17.590866 2.6824253
2.3580618 -15.105963 2.5552959
16.514271 -11.051736 2.6215038
10.496778 21.234291 -0.87395132
-29.354197 -20.470106 7.6738892
-11.531384 10.466414 2.1396425
1.5925446 2.5782356 -0.26921573
-12.08106 6.5647736 0.6421355
-25.093939 14.644197 8.7095661
53.02668 17.484192 4.2877913
-15.539876 -3.4006696 -0.70648026
29.279215 -19.323881 2.584017
-11.385677 11.802118 -0.52563554
-11.280045 17.151655 -0.66697389
21.16922 -23.5588 1.6332695
-23.090837 38.510826 -2.2933414
-22.869131 42.426811 13.955417
-21.41593 76.028748 -0.55969644
36.53199 6.2178822 0.0082719605
50.818455 -13.407065 5.2209158
-18.704241 -34.639732 -0.79359412
-22.981953 21.346823 -0.77464318
-19.70133 -36.328583 -0.73486739
-11.492646 -92.403053 1.7672837
12.60976 -9.1121931 1.4410759
23.504158 6.5816855 -0.12405914
92.565689 27.528492 12.05644
-34.462509 76.118431 -1.5082246
91.741615 26.67506 14.333548
22.493956 5.5531507 -0.13520885
-35.618332 75.815315 -1.5061635
-22.231022 67.361069 -2.7910633
-35.596062 75.890411 0.56375545
-21.925201 67.271378 -1.528499
-34.510559 75.864662 1.4643078
9.6219206 20.88398 2.3654861
91.911049 33.677254 12.543349
22.506702 12.545932 -0.16226709
-17.421984 -32.174107 1.4815755
45.548794 17.546362 -0.03014872
-9.7808819 -16.818399 2.1211648
-13.799837 -10.766447 2.3973894
-21.916943 67.470901 -2.8232665
-34.482128 75.907791 0.53824377
-11.170054 1.2572863 0.39226383
-24.103466 9.7330904 5.7325678
3.7257302 -37.619488 0.76351744
-9.4420223 -29.623697 6.5251474
21.462847 -6.3452988 -0.021445382
53.032368 20.639027 1.5428758
-29.232397 -21.373238 8.3813725
-11.183477 9.7096472 2.1366823
1.5090054 1.5017552 -0.25611353
-24.639719 -61.739521 2.8087244
12.508652 13.46634 -0.27608714
26.430014 -1.3711634 -0.02902982
-44.374699 76.444984 1.3007981
25.417034 -29.890923 0.93079519
-23.418327 9.5219183 2.5128689
-10.475801 1.5687572 -0.51522458
19.460609 14.529878 -0.15345667
-13.90497 -11.352275 0.16579357
-18.507004 77.144379 -1.5526966
39.500782 7.5355306 -0.083554432
21.432758 -23.554523 0.73973483
8.4023037 -15.349082 6.9508634
-5.4871173 34.445358 -0.74227053
52.916824 -35.03347 0.99275482
20.111164 3.8984571 1.0834579
52.856846 30.564308 4.2044978
-23.4967 12.431314 0.53256565
52.233402 19.654011 -0.023936121
27.202076 -3.7786317 1.5625478
-4.5466509 -19.051691 2.8947163
53.321194 -89.86882 3.9122405
22.4748 6.5881214 -0.14055239
-35.278389 76.137016 -1.4855407
45.394386 -87.575584 2.5656488
-12.189384 -17.387449 1.365891
50.481529 32.503254 -0.17633232
21.506872 5.5533676 -0.14021859
-36.254826 75.598114 -1.479767
21.423742 -29.458792 4.4352283
-23.363899 32.541256 -0.49668068
-22.271427 67.64061 -1.299543
35.172215 -2.0063677 -0.00030103326
-35.683239 75.892212 1.4453377
8.4976425 20.851255 2.4490378
21.473667 12.515713 -0.17280704
-9.4234905 24.403959 -0.76462233
-22.968105 32.534912 2.0166905
9.0361404 -4.9261684 1.7832277
-11.081342 -32.325897 1.9822674
51.536068 17.540676 -0.025683543
-17.527906 -42.151157 2.0896125
-36.276207 75.624924 -0.51825386
-23.451714 32.716915 0.42547169
-6.9618082 -39.982559 2.5283434
58.951164 -3.7257092 5.3485565
-23.609613 -16.550339 2.4248431
19.473061 -12.321651 -0.10773921
6.0422325 -4.6807485 2.7425902
30.589027 23.094757 2.4083109
43.50782 15.577056 -0.050934594
53.02887 18.473032 4.3418326
-15.452056 -2.5331252 -0.71870077
29.400576 -18.677143 2.5662236
-14.507039 -4.4994864 -0.63169223
-14.371741 -3.4140072 -0.43601215
10.862594 4.4631219 1.146414
-34.458584 66.439949 -4.0023108
38.506954 -1.4135813 0.057669498
-24.353624 -51.339314 2.8895948
40.556091 3.5003829 0.021646697
28.516769 -10.288912 0.54422724
60.294968 16.489508 2.6139145
32.317749 -14.436297 0.77497125
-11.733572 5.4412074 3.0093973
-23.612053 -42.758011 0.64073181
-40.506847 78.77536 -0.59430665
-10.459826 24.497543 -0.82273042
-23.306356 32.460045 2.2632105
7.2862892 20.83637 2.3407562
20.506618 12.499234 -0.18228506
52.663898 39.128204 1.4612361
-16.880697 -20.213263 1.444654
46.52977 29.506838 -0.21466543
-18.020288 -22.120911 1.5285987
44.479572 27.506891 -0.23277254
53.071465 0.67714965 1.7643589
12.536867 18.656502 -0.12981917
-24.107641 -56.095757 2.8832936
38.717419 -6.4526038 0.40198198
-18.137869 -47.071495 2.3795855
44.600048 2.5931962 0.013887144
29.400995 -23.5569 6.9455843
18.539621 -5.4789281 -0.056035448
-12.15387 -28.780413 3.4239225
50.85289 21.891317 1.0804596
-14.443638 -2.4984899 -0.64375705
6.4851599 21.286129 2.4219155
19.516195 13.499719 -0.1993463
11.448803 4.4800677 1.2492397
-33.622673 66.580017 -4.0443425
10.886487 3.719867 1.1187716
-34.58049 65.542862 -4.2493834
11.206869 -6.5410829 5.0912719
24.832277 -14.360249 0.70903665
43.49725 -3.440733 0.16332991
-24.092838 13.199053 5.9154768
-11.478271 5.6537242 0.87426269
21.18854 15.417857 0.67488492
-22.783125 35.351776 14.754595
21.38076 -30.412817 1.6492299
-23.102303 31.536396 -2.3087687
25.468643 -8.6035862 0.15418644
-38.569927 79.140427 -0.48277858
-38.885357 78.873573 -0.43312734
-39.554199 78.835426 -0.51934129
-17.388483 -19.66535 1.2834102
45.461761 30.427132 -0.24353942
51.089611 -5.8356953 1.4513156
91.897369 34.608368 12.212372
9.5661392 21.272554 2.4522336
22.5086 13.566053 -0.14773911
-4.3034134 9.2808218 1.4086828
-17.139389 -20.239395 1.4666156
45.55439 29.464062 -0.22890195
-17.730936 -31.748486 1.5371743
45.630615 18.503775 -0.022505963
5.6333809 -12.73863 2.1861835
11.48274 12.467818 -0.2715728
-14.452236 -1.5336249 -0.6861878
52.908508 17.556751 4.2559562
-16.498787 -3.4065018 -0.77516681
